ply
format ascii 1.0
comment Prolene 3.0
comment https://en.wikipedia.org/wiki/Prolene
comment Prolene is a synthetic, monofilament, nonabsorbable polypropylene suture
comment https://en.wikipedia.org/wiki/Surgical_suture
comment Surgical suture sizes are often refered in USP unit
comment This model is a 3.0 USP (0.2mm diameter)
comment https://en.wikipedia.org/wiki/Young's_modulus
comment Young modulus for polypropylene is between 1.5-2 GPa
comment https://en.wikipedia.org/wiki/Polypropylene
comment Mass density for polypropylene is between 855 and 946 Kg.m-3
comment http://www.vinidex.com.au/technical/material-properties/polypropylene-properties/
comment Poisson ratio for polypropylene is 0.45
element vertex 65
property double x
property double y
property double z
element 1d_element 64
property list uint uint vertex_indices
property double mass_density
property double poisson_ratio
property double young_modulus
element radius 1
property double value
element boundary_condition 1
property uint vertex_index
end_header
0 0.01 -0.175
0 0.0155 -0.17
0 0.019 -0.165
0 0.019 -0.16 
0 0.0155 -0.155 
0 0.01 -0.15 
0.0010452846 0.009945219 -0.1449152542 
0.0020791169 0.009781476 -0.1398305084 
0.0030901699 0.0095105652 -0.1347457626 
0.0040673664 0.0091354546 -0.1296610168 
0.005 0.008660254 -0.124576271 
0.0058778525 0.0080901699 -0.1194915252 
0.0066913061 0.0074314483 -0.1144067794 
0.0074314483 0.0066913061 -0.1093220336 
0.0080901699 0.0058778525 -0.1042372878 
0.008660254 0.005 -0.099152542 
0.0091354546 0.0040673664 -0.0940677962 
0.0095105652 0.0030901699 -0.0889830504 
0.009781476 0.0020791169 -0.0838983046 
0.009945219 0.0010452846 -0.0788135588 
0.01 2.94896168765644E-012 -0.073728813 
0.009945219 -0.0010452846 -0.0686440672 
0.009781476 -0.0020791169 -0.0635593214 
0.0095105652 -0.0030901699 -0.0584745756 
0.0091354546 -0.0040673664 -0.0533898298 
0.008660254 -0.005 -0.048305084 
0.0080901699 -0.0058778525 -0.0432203382 
0.0074314483 -0.0066913061 -0.0381355924 
0.0066913061 -0.0074314483 -0.0330508466 
0.0058778525 -0.0080901699 -0.0279661008 
0.005 -0.008660254 -0.022881355 
0.0040673664 -0.0091354546 -0.0177966092 
0.0030901699 -0.0095105652 -0.0127118634 
0.0020791169 -0.009781476 -0.0076271176 
0.0010452846 -0.009945219 -0.0025423718 
5.89791449352869E-012 -0.01 0.002542374 
-0.0010452846 -0.009945219 0.0076271198 
-0.0020791169 -0.009781476 0.0127118656 
-0.0030901699 -0.0095105652 0.0177966114 
-0.0040673664 -0.0091354546 0.0228813572 
-0.005 -0.008660254 0.027966103 
-0.0058778525 -0.0080901699 0.0330508488 
-0.0066913061 -0.0074314483 0.0381355946 
-0.0074314482 -0.0066913061 0.0432203404 
-0.0080901699 -0.0058778525 0.0483050862 
-0.008660254 -0.005 0.053389832 
-0.0091354546 -0.0040673664 0.0584745778 
-0.0095105652 -0.00309017 0.0635593236 
-0.009781476 -0.0020791169 0.0686440694 
-0.009945219 -0.0010452846 0.0737288152 
-0.01 -8.84689838564563E-012 0.078813561 
-0.009945219 0.0010452846 0.0838983068 
-0.009781476 0.0020791169 0.0889830526 
-0.0095105652 0.0030901699 0.0940677984 
-0.0091354546 0.0040673664 0.0991525442 
-0.008660254 0.005 0.10423729 
-0.0080901699 0.0058778525 0.1093220358 
-0.0074314483 0.0066913061 0.1144067816 
-0.0066913061 0.0074314482 0.1194915274 
-0.0058778525 0.0080901699 0.1245762732 
-0.005 0.008660254 0.129661019 
-0.0040673664 0.0091354546 0.1347457648 
-0.00309017 0.0095105652 0.1398305106 
-0.0020791169 0.009781476 0.1449152564 
-0.0010452846 0.009945219 0.1500000022 
2 0 1 900.0 0.45 200e9
2 1 2 900.0 0.45 200e9
2 2 3 900.0 0.45 200e9
2 3 4 900.0 0.45 200e9
2 4 5 900.0 0.45 200e9
2 5 6 900.0 0.45 25e9
2 6 7 900.0 0.45 12e9
2 7 8 900.0 0.45 6e9
2 8 9 900.0 0.45 3e9
2 9 10 900.0 0.45 1.75e9
2 10 11 900.0 0.45 1.75e9
2 11 12 900.0 0.45 1.75e9
2 12 13 900.0 0.45 1.75e9
2 13 14 900.0 0.45 1.75e9
2 14 15 900.0 0.45 1.75e9
2 15 16 900.0 0.45 1.75e9
2 16 17 900.0 0.45 1.75e9
2 17 18 900.0 0.45 1.75e9
2 18 19 900.0 0.45 1.75e9
2 19 20 900.0 0.45 1.75e9
2 20 21 900.0 0.45 1.75e9
2 21 22 900.0 0.45 1.75e9
2 22 23 900.0 0.45 1.75e9
2 23 24 900.0 0.45 1.75e9
2 24 25 900.0 0.45 1.75e9
2 25 26 900.0 0.45 1.75e9
2 26 27 900.0 0.45 1.75e9
2 27 28 900.0 0.45 1.75e9
2 28 29 900.0 0.45 1.75e9
2 29 30 900.0 0.45 1.75e9
2 30 31 900.0 0.45 1.75e9
2 31 32 900.0 0.45 1.75e9
2 32 33 900.0 0.45 1.75e9
2 33 34 900.0 0.45 1.75e9
2 34 35 900.0 0.45 1.75e9
2 35 36 900.0 0.45 1.75e9
2 36 37 900.0 0.45 1.75e9
2 37 38 900.0 0.45 1.75e9
2 38 39 900.0 0.45 1.75e9
2 39 40 900.0 0.45 1.75e9
2 40 41 900.0 0.45 1.75e9
2 41 42 900.0 0.45 1.75e9
2 42 43 900.0 0.45 1.75e9
2 43 44 900.0 0.45 1.75e9
2 44 45 900.0 0.45 1.75e9
2 45 46 900.0 0.45 1.75e9
2 46 47 900.0 0.45 1.75e9
2 47 48 900.0 0.45 1.75e9
2 48 49 900.0 0.45 1.75e9
2 49 50 900.0 0.45 1.75e9
2 50 51 900.0 0.45 1.75e9
2 51 52 900.0 0.45 1.75e9
2 52 53 900.0 0.45 1.75e9
2 53 54 900.0 0.45 1.75e9
2 54 55 900.0 0.45 1.75e9
2 55 56 900.0 0.45 1.75e9
2 56 57 900.0 0.45 1.75e9
2 57 58 900.0 0.45 1.75e9
2 58 59 900.0 0.45 1.75e9
2 59 60 900.0 0.45 1.75e9
2 60 61 900.0 0.45 1.75e9
2 61 62 900.0 0.45 1.75e9
2 62 63 900.0 0.45 1.75e9
2 63 64 900.0 0.45 1.75e9
0.0001
0