ply
format ascii 1.0
comment Prolene 3.0
comment https://en.wikipedia.org/wiki/Prolene
comment Prolene is a synthetic, monofilament, nonabsorbable polypropylene suture
comment https://en.wikipedia.org/wiki/Surgical_suture
comment Surgical suture sizes are often refered in USP unit
comment This model is a 3.0 USP (0.2mm diameter)
comment https://en.wikipedia.org/wiki/Young's_modulus
comment Young modulus for polypropylene is between 1.5-2 GPa
comment https://en.wikipedia.org/wiki/Polypropylene
comment Mass density for polypropylene is between 855 and 946 Kg.m-3
comment http://www.vinidex.com.au/technical/material-properties/polypropylene-properties/
comment Poisson ratio for polypropylene is 0.45
element vertex 63
property double x
property double y
property double z
element 1d_element 62
property list uint uint vertex_indices
element radius 1
property double value
element material 1
property double mass_density
property double poisson_ratio
property double young_modulus 
element boundary_condition 2
property uint vertex_index
end_header
-0.063988 0.035971 0.001502
-0.062314 0.035845 0.001502
-0.058927 0.035774 0.001502
-0.054140 0.034099 0.001500
-0.049371 0.032492 0.001508
-0.044793 0.030356 0.001482
-0.040472 0.027735 0.001572
-0.036726 0.024439 0.002441
-0.032934 0.021236 0.003300
-0.028799 0.018268 0.003098
-0.024722 0.015856 0.001294
-0.020714 0.013729 -0.000962
-0.016169 0.011300 -0.001046
-0.011773 0.009644 0.001057
-0.007495 0.010778 0.003732
-0.003107 0.013450 0.004363
0.001183 0.015271 0.002129
0.005421 0.014709 -0.000760
0.009751 0.011748 -0.001268
0.013047 0.008401 0.000717
0.012882 0.007804 0.001146
0.012783 0.006648 0.001458
0.012894 0.004200 0.001517
0.011937 0.001798 -0.001088
0.008788 -0.002345 -0.001550
0.005124 -0.004998 -0.000378
-0.001046 -0.006377 0.003695
-0.010947 0.000529 0.003460
-0.015734 -0.002242 -0.001552
-0.014660 -0.007916 -0.000534
-0.011448 -0.011773 0.000641
-0.004481 -0.014841 0.001502
0.003124 -0.013658 0.002207
0.010355 -0.009523 0.002520
0.011750 -0.003759 0.002912
0.009530 0.000610 0.002833
0.004301 0.002104 -0.000612
-0.001333 -0.000861 -0.001630
-0.006154 -0.003630 -0.001162
-0.011641 -0.005711 0.000489
-0.017592 -0.006239 0.002449
-0.022020 -0.003131 0.002113
-0.023768 0.001636 0.002187
-0.023105 0.006241 0.002792
-0.020773 0.010135 0.003309
-0.016732 0.013315 0.004273
-0.012269 0.015101 0.002516
-0.007868 0.014977 -0.000180
-0.003604 0.012248 -0.001343
0.000726 0.009916 0.000484
0.004992 0.010415 0.003128
0.009576 0.012768 0.004503
0.013512 0.015055 0.002167
0.017607 0.017447 0.000416
0.021803 0.020336 0.000200
0.025923 0.023100 0.001042
0.030292 0.025627 0.001485
0.035002 0.027418 0.001534
0.039908 0.028661 0.001477
0.044947 0.028927 0.001517
0.049973 0.029365 0.001497
0.053335 0.029135 0.001502
0.055012 0.029068 0.001502
2 0 1
2 1 2
2 2 3
2 3 4
2 4 5
2 5 6
2 6 7
2 7 8
2 8 9
2 9 10
2 10 11
2 11 12
2 12 13
2 13 14
2 14 15
2 15 16
2 16 17
2 17 18
2 18 19
2 19 20
2 20 21
2 21 22
2 22 23
2 23 24
2 24 25
2 25 26
2 26 27
2 27 28
2 28 29
2 29 30
2 30 31
2 31 32
2 32 33
2 33 34
2 34 35
2 35 36
2 36 37
2 37 38
2 38 39
2 39 40
2 40 41
2 41 42
2 42 43
2 43 44
2 44 45
2 45 46
2 46 47
2 47 48
2 48 49
2 49 50
2 50 51
2 51 52
2 52 53
2 53 54
2 54 55
2 55 56
2 56 57
2 57 58
2 58 59
2 59 60
2 60 61
2 61 62
0.0001
900.0 0.48 1.75e7
0
62
