ply
format ascii 1.0
comment Created by OpenSurgSim, www.opensurgsim.org
element vertex 50
property double x
property double y
property double z
property double mass
element 2d_element 72
property list uint uint vertex_indices
element thickness 1
property double value
element spring 227
property list uint uint vertex_indices
property double stiffness
property double damping
element boundary_condition 2
property uint vertex_index
end_header
0.1 0.2 0.3 0.022
1.21111 1.31111 1.42222 0.022
2.32222 2.42222 2.54444 0.022
3.43333 3.53333 3.66667 0.022
4.54444 4.64444 4.78889 0.022
5.65556 5.75556 5.91111 0.022
6.76667 6.86667 7.03333 0.022
7.87778 7.97778 8.15556 0.022
8.98889 9.08889 9.27778 0.022
10.1 10.2 10.4 0.022
0.35 0.45 0.55 0.022
1.41667 1.51667 1.61389 0.022
2.48333 2.58333 2.67778 0.022
3.55 3.65 3.74167 0.022
4.61667 4.71667 4.80556 0.022
5.68333 5.78333 5.86944 0.022
6.75 6.85 6.93333 0.022
7.81667 7.91667 7.99722 0.022
8.88333 8.98333 9.06111 0.022
9.95 10.05 10.125 0.022
0.6 0.7 0.8 0.022
1.62222 1.72222 1.80556 0.022
2.64444 2.74444 2.81111 0.022
3.66667 3.76667 3.81667 0.022
4.68889 4.78889 4.82222 0.022
5.71111 5.81111 5.82778 0.022
6.73333 6.83333 6.83333 0.022
7.75556 7.85556 7.83889 0.022
8.77778 8.87778 8.84444 0.022
9.8 9.9 9.85 0.022
0.85 0.95 1.05 0.022
1.82778 1.92778 1.99722 0.022
2.80556 2.90556 2.94444 0.022
3.78333 3.88333 3.89167 0.022
4.76111 4.86111 4.83889 0.022
5.73889 5.83889 5.78611 0.022
6.71667 6.81667 6.73333 0.022
7.69444 7.79444 7.68056 0.022
8.67222 8.77222 8.62778 0.022
9.65 9.75 9.575 0.022
1.1 1.2 1.3 0.022
2.03333 2.13333 2.18889 0.022
2.96667 3.06667 3.07778 0.022
3.9 4 3.96667 0.022
4.83333 4.93333 4.85556 0.022
5.76667 5.86667 5.74444 0.022
6.7 6.8 6.63333 0.022
7.63333 7.73333 7.52222 0.022
8.56667 8.66667 8.41111 0.022
9.5 9.6 9.3 0.022
3 0 10 1
3 1 10 11
3 1 11 2
3 2 11 12
3 2 12 3
3 3 12 13
3 3 13 4
3 4 13 14
3 4 14 5
3 5 14 15
3 5 15 6
3 6 15 16
3 6 16 7
3 7 16 17
3 7 17 8
3 8 17 18
3 8 18 9
3 9 18 19
3 10 20 11
3 11 20 21
3 11 21 12
3 12 21 22
3 12 22 13
3 13 22 23
3 13 23 14
3 14 23 24
3 14 24 15
3 15 24 25
3 15 25 16
3 16 25 26
3 16 26 17
3 17 26 27
3 17 27 18
3 18 27 28
3 18 28 19
3 19 28 29
3 20 30 21
3 21 30 31
3 21 31 22
3 22 31 32
3 22 32 23
3 23 32 33
3 23 33 24
3 24 33 34
3 24 34 25
3 25 34 35
3 25 35 26
3 26 35 36
3 26 36 27
3 27 36 37
3 27 37 28
3 28 37 38
3 28 38 29
3 29 38 39
3 30 40 31
3 31 40 41
3 31 41 32
3 32 41 42
3 32 42 33
3 33 42 43
3 33 43 34
3 34 43 44
3 34 44 35
3 35 44 45
3 35 45 36
3 36 45 46
3 36 46 37
3 37 46 47
3 37 47 38
3 38 47 48
3 38 48 39
3 39 48 49
0.001
2 0 1 2.2 3.3
2 1 2 2.2 3.3
2 2 3 2.2 3.3
2 3 4 2.2 3.3
2 4 5 2.2 3.3
2 5 6 2.2 3.3
2 6 7 2.2 3.3
2 7 8 2.2 3.3
2 8 9 2.2 3.3
2 10 11 2.2 3.3
2 11 12 2.2 3.3
2 12 13 2.2 3.3
2 13 14 2.2 3.3
2 14 15 2.2 3.3
2 15 16 2.2 3.3
2 16 17 2.2 3.3
2 17 18 2.2 3.3
2 18 19 2.2 3.3
2 20 21 2.2 3.3
2 21 22 2.2 3.3
2 22 23 2.2 3.3
2 23 24 2.2 3.3
2 24 25 2.2 3.3
2 25 26 2.2 3.3
2 26 27 2.2 3.3
2 27 28 2.2 3.3
2 28 29 2.2 3.3
2 30 31 2.2 3.3
2 31 32 2.2 3.3
2 32 33 2.2 3.3
2 33 34 2.2 3.3
2 34 35 2.2 3.3
2 35 36 2.2 3.3
2 36 37 2.2 3.3
2 37 38 2.2 3.3
2 38 39 2.2 3.3
2 40 41 2.2 3.3
2 41 42 2.2 3.3
2 42 43 2.2 3.3
2 43 44 2.2 3.3
2 44 45 2.2 3.3
2 45 46 2.2 3.3
2 46 47 2.2 3.3
2 47 48 2.2 3.3
2 48 49 2.2 3.3
2 0 10 2.2 3.3
2 10 20 2.2 3.3
2 20 30 2.2 3.3
2 30 40 2.2 3.3
2 1 11 2.2 3.3
2 11 21 2.2 3.3
2 21 31 2.2 3.3
2 31 41 2.2 3.3
2 2 12 2.2 3.3
2 12 22 2.2 3.3
2 22 32 2.2 3.3
2 32 42 2.2 3.3
2 3 13 2.2 3.3
2 13 23 2.2 3.3
2 23 33 2.2 3.3
2 33 43 2.2 3.3
2 4 14 2.2 3.3
2 14 24 2.2 3.3
2 24 34 2.2 3.3
2 34 44 2.2 3.3
2 5 15 2.2 3.3
2 15 25 2.2 3.3
2 25 35 2.2 3.3
2 35 45 2.2 3.3
2 6 16 2.2 3.3
2 16 26 2.2 3.3
2 26 36 2.2 3.3
2 36 46 2.2 3.3
2 7 17 2.2 3.3
2 17 27 2.2 3.3
2 27 37 2.2 3.3
2 37 47 2.2 3.3
2 8 18 2.2 3.3
2 18 28 2.2 3.3
2 28 38 2.2 3.3
2 38 48 2.2 3.3
2 9 19 2.2 3.3
2 19 29 2.2 3.3
2 29 39 2.2 3.3
2 39 49 2.2 3.3
2 0 2 4.4 5.5
2 1 3 4.4 5.5
2 2 4 4.4 5.5
2 3 5 4.4 5.5
2 4 6 4.4 5.5
2 5 7 4.4 5.5
2 6 8 4.4 5.5
2 7 9 4.4 5.5
2 10 12 4.4 5.5
2 11 13 4.4 5.5
2 12 14 4.4 5.5
2 13 15 4.4 5.5
2 14 16 4.4 5.5
2 15 17 4.4 5.5
2 16 18 4.4 5.5
2 17 19 4.4 5.5
2 20 22 4.4 5.5
2 21 23 4.4 5.5
2 22 24 4.4 5.5
2 23 25 4.4 5.5
2 24 26 4.4 5.5
2 25 27 4.4 5.5
2 26 28 4.4 5.5
2 27 29 4.4 5.5
2 30 32 4.4 5.5
2 31 33 4.4 5.5
2 32 34 4.4 5.5
2 33 35 4.4 5.5
2 34 36 4.4 5.5
2 35 37 4.4 5.5
2 36 38 4.4 5.5
2 37 39 4.4 5.5
2 40 42 4.4 5.5
2 41 43 4.4 5.5
2 42 44 4.4 5.5
2 43 45 4.4 5.5
2 44 46 4.4 5.5
2 45 47 4.4 5.5
2 46 48 4.4 5.5
2 47 49 4.4 5.5
2 0 20 4.4 5.5
2 10 30 4.4 5.5
2 20 40 4.4 5.5
2 1 21 4.4 5.5
2 11 31 4.4 5.5
2 21 41 4.4 5.5
2 2 22 4.4 5.5
2 12 32 4.4 5.5
2 22 42 4.4 5.5
2 3 23 4.4 5.5
2 13 33 4.4 5.5
2 23 43 4.4 5.5
2 4 24 4.4 5.5
2 14 34 4.4 5.5
2 24 44 4.4 5.5
2 5 25 4.4 5.5
2 15 35 4.4 5.5
2 25 45 4.4 5.5
2 6 26 4.4 5.5
2 16 36 4.4 5.5
2 26 46 4.4 5.5
2 7 27 4.4 5.5
2 17 37 4.4 5.5
2 27 47 4.4 5.5
2 8 28 4.4 5.5
2 18 38 4.4 5.5
2 28 48 4.4 5.5
2 9 29 4.4 5.5
2 19 39 4.4 5.5
2 29 49 4.4 5.5
2 0 11 6.6 7.7
2 1 10 6.6 7.7
2 1 12 6.6 7.7
2 2 11 6.6 7.7
2 2 13 6.6 7.7
2 3 12 6.6 7.7
2 3 14 6.6 7.7
2 4 13 6.6 7.7
2 4 15 6.6 7.7
2 5 14 6.6 7.7
2 5 16 6.6 7.7
2 6 15 6.6 7.7
2 6 17 6.6 7.7
2 7 16 6.6 7.7
2 7 18 6.6 7.7
2 8 17 6.6 7.7
2 8 19 6.6 7.7
2 9 18 6.6 7.7
2 10 21 6.6 7.7
2 11 20 6.6 7.7
2 11 22 6.6 7.7
2 12 21 6.6 7.7
2 12 23 6.6 7.7
2 13 22 6.6 7.7
2 13 24 6.6 7.7
2 14 23 6.6 7.7
2 14 25 6.6 7.7
2 15 24 6.6 7.7
2 15 26 6.6 7.7
2 16 25 6.6 7.7
2 16 27 6.6 7.7
2 17 26 6.6 7.7
2 17 28 6.6 7.7
2 18 27 6.6 7.7
2 18 29 6.6 7.7
2 19 28 6.6 7.7
2 20 31 6.6 7.7
2 21 30 6.6 7.7
2 21 32 6.6 7.7
2 22 31 6.6 7.7
2 22 33 6.6 7.7
2 23 32 6.6 7.7
2 23 34 6.6 7.7
2 24 33 6.6 7.7
2 24 35 6.6 7.7
2 25 34 6.6 7.7
2 25 36 6.6 7.7
2 26 35 6.6 7.7
2 26 37 6.6 7.7
2 27 36 6.6 7.7
2 27 38 6.6 7.7
2 28 37 6.6 7.7
2 28 39 6.6 7.7
2 29 38 6.6 7.7
2 30 41 6.6 7.7
2 31 40 6.6 7.7
2 31 42 6.6 7.7
2 32 41 6.6 7.7
2 32 43 6.6 7.7
2 33 42 6.6 7.7
2 33 44 6.6 7.7
2 34 43 6.6 7.7
2 34 45 6.6 7.7
2 35 44 6.6 7.7
2 35 46 6.6 7.7
2 36 45 6.6 7.7
2 36 47 6.6 7.7
2 37 46 6.6 7.7
2 37 48 6.6 7.7
2 38 47 6.6 7.7
2 38 49 6.6 7.7
2 39 48 6.6 7.7
0
49
